# .PCD v0.7 - Point Cloud Data file format
VERSION 0.7
FIELDS x y z
SIZE 4 4 4
TYPE F F F
COUNT 1 1 1
WIDTH 1535
HEIGHT 1
VIEWPOINT 0 0 0 1 0 0 0
POINTS 1535
DATA ascii
1.8076172 1.4326172 0.35375202
1.8134766 1.4326172 0.35407645
1.8193359 1.4326172 0.35422537
1.6083984 1.4267578 0.35107666
1.6142578 1.4267578 0.35181069
1.6201172 1.4267578 0.35138369
1.6259766 1.4267578 0.35109031
1.6318359 1.4267578 0.35134628
1.6376953 1.4267578 0.35109675
1.6435547 1.4267578 0.350934
1.6494141 1.4267578 0.35102969
1.6552734 1.4267578 0.35145006
1.6611328 1.4267578 0.35193291
1.6669922 1.4267578 0.35259911
1.6728516 1.4267578 0.35292226
1.6787109 1.4267578 0.35311618
1.6845703 1.4267578 0.35311824
1.8202345 1.4208984 0.35449219
1.8251953 1.4208984 0.35502651
1.8310547 1.4208984 0.35576808
1.8369141 1.4208984 0.35626733
1.8427734 1.4208984 0.35650101
1.8486328 1.4208984 0.35686806
1.8544922 1.4208984 0.35711592
1.8603516 1.4208984 0.35728115
1.8662109 1.4208984 0.35748434
1.8720703 1.4208984 0.35743332
1.6904297 1.4384766 0.35297701
1.6962891 1.4384766 0.35298333
1.7021484 1.4384766 0.35328189
1.7080078 1.4384766 0.35357317
1.7138672 1.4384766 0.35329172
1.7197266 1.4384766 0.35323712
1.7255859 1.4384766 0.35341939
1.7314453 1.4384766 0.35348308
1.7373047 1.4384766 0.35323882
1.7431641 1.4384766 0.35310012
1.7490234 1.4384766 0.35296905
1.7548828 1.4384766 0.35288632
1.7607422 1.4384766 0.35312554
1.7666016 1.4384766 0.35312665
1.7724609 1.4384766 0.35297272
1.7783203 1.4384766 0.35331148
1.7841797 1.4384766 0.35384274
1.7900391 1.4384766 0.3534987
1.7958984 1.4384766 0.35361704
1.8017578 1.4384766 0.35381612
1.8076172 1.4384766 0.35379291
1.8134766 1.4384766 0.35392484
1.8193359 1.4384766 0.35401782
1.6201172 1.4326172 0.35110351
1.6259766 1.4326172 0.35140795
1.6318359 1.4326172 0.35117969
1.6376953 1.4326172 0.35106853
1.6435547 1.4326172 0.35093582
1.6494141 1.4326172 0.35103017
1.6552734 1.4326172 0.35139969
1.6611328 1.4326172 0.35183239
1.6669922 1.4326172 0.35233
1.6728516 1.4326172 0.35286364
1.6787109 1.4326172 0.35289484
1.6845703 1.4326172 0.35289294
1.8204002 1.4267578 0.35449219
1.8251953 1.4267578 0.35485482
1.8310547 1.4267578 0.35573381
1.8369141 1.4267578 0.35619462
1.8427734 1.4267578 0.35655421
1.8486328 1.4267578 0.35674593
1.8544922 1.4267578 0.35703871
1.8603516 1.4267578 0.35729921
1.8662109 1.4267578 0.35735878
1.8720703 1.4267578 0.35747474
1.6201172 1.4384766 0.35246888
1.6259766 1.4384766 0.35201636
1.6318359 1.4384766 0.35120448
1.6376953 1.4384766 0.35105836
1.6435547 1.4384766 0.35090828
1.6494141 1.4384766 0.35106051
1.6552734 1.4384766 0.35129797
1.6611328 1.4384766 0.3517487
1.6669922 1.4384766 0.35234472
1.6728516 1.4384766 0.35266504
1.6787109 1.4384766 0.35280678
1.6845703 1.4384766 0.35297269
1.8220617 1.4326172 0.35449219
1.8251953 1.4326172 0.35479084
1.8310547 1.4326172 0.3556298
1.8369141 1.4326172 0.35607848
1.8427734 1.4326172 0.35649604
1.8486328 1.4326172 0.35671547
1.8544922 1.4326172 0.35695279
1.8603516 1.4326172 0.35725409
1.8662109 1.4326172 0.35734442
1.8720703 1.4326172 0.35747671
1.8233316 1.4384766 0.35449219
1.8251953 1.4384766 0.35471377
1.8310547 1.4384766 0.35570475
1.8369141 1.4384766 0.35617152
1.8427734 1.4384766 0.3563602
1.8486328 1.4384766 0.35647315
1.8544922 1.4384766 0.35693446
1.8603516 1.4384766 0.35712934
1.8662109 1.4384766 0.35724181
1.8720703 1.4384766 0.35743949
1.3154297 1.4091797 0.34864518
1.3212891 1.4091797 0.34873956
1.3271484 1.4091797 0.34891182
1.3330078 1.4091797 0.3487511
1.3388672 1.4091797 0.34954047
1.3447266 1.4091797 0.3498697
1.3505859 1.4091797 0.35008073
1.3564453 1.4091797 0.35019618
1.3623047 1.4091797 0.35026336
1.3681641 1.4091797 0.35014358
1.3740234 1.4091797 0.34938392
1.3798828 1.4091797 0.34915382
1.3857422 1.4091797 0.34901971
1.3933344 1.4091797 0.34863281
1.3916016 1.4091797 0.34881079
1.3974609 1.4105831 0.34863281
1.3154297 1.4150391 0.34894234
1.3212891 1.4150391 0.34886262
1.3271484 1.4150391 0.34896475
1.3330078 1.4150391 0.34887388
1.3388672 1.4150391 0.34967121
1.3447266 1.4150391 0.35019118
1.3505859 1.4150391 0.35034353
1.3564453 1.4150391 0.35039082
1.3623047 1.4150391 0.3503103
1.3681641 1.4150391 0.35023296
1.3740234 1.4150391 0.34953991
1.3798828 1.4150391 0.34919536
1.3857422 1.4150391 0.34933281
1.3916016 1.4150391 0.34940496
1.3974609 1.4150391 0.35000047
1.3154297 1.4208984 0.34916013
1.3212891 1.4208984 0.34922853
1.3271484 1.4208984 0.34891269
1.3330078 1.4208984 0.34912872
1.3388672 1.4208984 0.34979939
1.3447266 1.4208984 0.35006049
1.3505859 1.4208984 0.3502762
1.3564453 1.4208984 0.350297
1.3623047 1.4208984 0.35043451
1.3681641 1.4208984 0.35043618
1.3740234 1.4208984 0.34987071
1.3798828 1.4208984 0.34907374
1.3857422 1.4208984 0.34901121
1.3916016 1.4208984 0.34915957
1.3154297 1.4267578 0.34919173
1.3212891 1.4267578 0.34937897
1.3271484 1.4267578 0.34936821
1.3330078 1.4267578 0.3494404
1.3388672 1.4267578 0.34987193
1.3447266 1.4267578 0.35027188
1.3505859 1.4267578 0.35041076
1.3564453 1.4267578 0.35036397
1.3623047 1.4267578 0.35031646
1.3681641 1.4267578 0.35059053
1.3740234 1.4267578 0.35034472
1.3798828 1.4267578 0.34953281
1.3857422 1.4267578 0.3492412
1.3916016 1.4267578 0.34889948
1.3916016 1.4384766 0.34854734
1.3154297 1.4326172 0.34882233
1.3212891 1.4326172 0.34930521
1.3271484 1.4326172 0.34939149
1.3330078 1.4326172 0.34953183
1.3388672 1.4326172 0.35003287
1.3447266 1.4326172 0.35050914
1.3505859 1.4326172 0.35056892
1.3564453 1.4326172 0.35053813
1.3623047 1.4326172 0.35046244
1.3681641 1.4326172 0.35080051
1.3740234 1.4326172 0.35062084
1.3798828 1.4326172 0.34946358
1.3857422 1.4326172 0.34915987
1.3916016 1.433929 0.34863281
1.3916016 1.4326172 0.34865788
1.3154297 1.4384766 0.34881479
1.3212891 1.4384766 0.34941879
1.3271484 1.4384766 0.34942752
1.3330078 1.4384766 0.34944686
1.3388672 1.4384766 0.3500742
1.3447266 1.4384766 0.35034332
1.3505859 1.4384766 0.35066834
1.3564453 1.4384766 0.35057908
1.3623047 1.4384766 0.35034022
1.3681641 1.4384766 0.35066006
1.3740234 1.4384766 0.35068712
1.3798828 1.4384766 0.35003179
1.3910772 1.4384766 0.34863281
1.3857422 1.4384766 0.34961745
1.4912109 1.4501953 0.071515881
1.4970703 1.4501953 0.069434933
1.4853516 1.4443359 0.072955899
1.4912109 1.4443359 0.070395268
1.4970703 1.4443359 0.068885729
1.4912109 1.4560547 0.078256115
1.4970703 1.4560547 0.07877285
1.4794922 1.4501953 0.077191055
1.4878832 1.4501953 0.073242188
1.4853516 1.4501953 0.074563339
1.4912109 1.451696 0.073242188
1.4970703 1.4526342 0.073242188
1.4848323 1.4443359 0.073242188
1.4794922 1.4443359 0.076092966
1.4853516 1.4454533 0.073242188
1.4853516 1.4619141 0.084149279
1.4912109 1.4619141 0.082173243
1.4970703 1.4619141 0.08335463
1.4794922 1.4560547 0.082314886
1.4865491 1.4560547 0.079101562
1.4853516 1.4560547 0.079312801
1.4912109 1.4573725 0.079101562
1.4982361 1.4560547 0.079101562
1.4970703 1.4565122 0.079101562
1.4767742 1.4501953 0.079101562
1.4736328 1.4501953 0.081224747
1.4794922 1.4523946 0.079101562
1.4853516 1.4557855 0.079101562
1.4970703 1.4736328 0.084223881
1.4768029 1.4443359 0.079101562
1.4736328 1.4443359 0.081788898
1.4853516 1.4677734 0.088176943
1.4912109 1.4677734 0.086228631
1.4970703 1.4704974 0.084960938
1.4970703 1.4677734 0.085608125
1.4843906 1.4619141 0.084960938
1.4794922 1.4619141 0.089171804
1.4853516 1.4630897 0.084960938
1.4912109 1.4658598 0.084960938
1.4993434 1.4619141 0.084960938
1.4970703 1.4659196 0.084960938
1.4794922 1.458333 0.084960938
1.4699117 1.4501953 0.084960938
1.4677734 1.4501953 0.086741798
1.4853516 1.4736328 0.088051207
1.4941097 1.4736328 0.084960938
1.4912109 1.4736328 0.085672624
1.4717127 1.4443359 0.084960938
1.4824101 1.4677734 0.090820312
1.4794922 1.4677734 0.093292676
1.4783875 1.4619141 0.090820312
1.4736328 1.4619141 0.095897019
1.4794922 1.4641439 0.090820312
1.4721195 1.4560547 0.090820312
1.4736328 1.4580967 0.090820312
1.4677734 1.4520959 0.090820312
1.4686766 1.4443359 0.090820312
1.4677734 1.4460109 0.090820312
1.4677734 1.4443359 0.092413992
1.4736328 1.4736328 0.096362926
1.4811094 1.4736328 0.090820312
1.4794922 1.4793175 0.090820312
1.4794922 1.4736328 0.091852702
1.475172 1.4677734 0.096679688
1.4736328 1.4722821 0.096679688
1.4736328 1.4677734 0.097847097
1.4728134 1.4619141 0.096679688
1.4736328 1.4645807 0.096679688
1.4700296 1.4560547 0.096679688
1.4631975 1.4501953 0.096679688
1.4677734 1.4539644 0.096679688
1.4641122 1.4443359 0.096679688
1.4619141 1.4443359 0.099450447
1.4733357 1.4736328 0.096679688
1.4619141 1.4619141 0.10762884
1.4679717 1.4619141 0.10253906
1.4677734 1.4619141 0.10283323
1.4690027 1.4677734 0.10253906
1.4677734 1.4677734 0.10387172
1.4681207 1.4560547 0.10253906
1.4677734 1.4560547 0.10373028
1.4677734 1.4557388 0.10253906
1.4605436 1.4443359 0.10253906
1.4619141 1.4658095 0.10839844
1.4681993 1.4736328 0.10253906
1.4677734 1.4747992 0.10253906
1.4677734 1.4736328 0.10304139
1.0751953 1.4499389 0.34277344
1.0751953 1.4443359 0.3445394
1.0810547 1.4443359 0.34472767
1.0869141 1.4443359 0.34415963
1.0927734 1.4443359 0.34352392
1.0986328 1.4443359 0.34343639
1.1044922 1.4443359 0.34395337
1.1103516 1.4443359 0.34419724
1.1162109 1.4443359 0.34432694
1.1220703 1.4443359 0.34520444
1.4624552 1.4677734 0.10839844
1.4619141 1.4677734 0.10883351
1.0754554 1.4501953 0.34277344
1.0751953 1.4507324 0.34277344
1.0810547 1.4501953 0.34486136
1.0869141 1.4501953 0.34450695
1.0927734 1.4501953 0.34388921
1.0986328 1.4501953 0.34361142
1.1044922 1.4501953 0.34409335
1.1103516 1.4501953 0.3442089
1.1162109 1.4501953 0.34440425
1.1220703 1.4501953 0.34514117
1.0751953 1.4619141 0.34513846
1.0810547 1.4619141 0.34546179
1.0869141 1.4619141 0.34443304
1.0927734 1.4619141 0.34431279
1.0986328 1.4619141 0.34448287
1.1044922 1.4619141 0.34432954
1.1103516 1.4619141 0.34434751
1.1162109 1.4619141 0.34481496
1.1220703 1.4619141 0.34568286
1.0751953 1.4560547 0.34399533
1.0810547 1.4560547 0.34536049
1.0869141 1.4560547 0.34446529
1.0927734 1.4560547 0.34414837
1.0986328 1.4560547 0.3442024
1.1044922 1.4560547 0.34419459
1.1103516 1.4560547 0.34432045
1.1162109 1.4560547 0.3446357
1.1220703 1.4560547 0.34544614
1.4590353 1.4443359 0.10839844
1.0751953 1.4677734 0.34628487
1.0810547 1.4677734 0.3458682
1.0869141 1.4677734 0.34484375
1.0927734 1.4677734 0.34444889
1.0986328 1.4677734 0.34435228
1.1044922 1.4677734 0.34467867
1.1103516 1.4677734 0.34432003
1.1162109 1.4677734 0.34501833
1.1220703 1.4677734 0.34580094
1.5322266 1.4736328 0.061395764
1.5205078 1.4677734 0.067249246
1.5263672 1.4677734 0.065208003
1.5322266 1.473442 0.061523438
1.5322266 1.4677734 0.06535726
1.5029297 1.4443359 0.068131149
1.5087891 1.4443359 0.068347253
1.5146484 1.4443359 0.068431683
1.5205078 1.4443359 0.069549501
1.5263672 1.4443359 0.07082659
1.5322266 1.4443359 0.071190707
1.5380859 1.4443359 0.072067812
1.5029297 1.4501953 0.068730973
1.5087891 1.4501953 0.07008855
1.5146484 1.4501953 0.070787117
1.5205078 1.4501953 0.071709305
1.5263672 1.4501953 0.072805919
1.5263672 1.4560547 0.073111065
1.0751953 1.4736328 0.34636319
1.0810547 1.4736328 0.34563768
1.0869141 1.4736328 0.34456703
1.0927734 1.4736328 0.34453866
1.0986328 1.4736328 0.34495357
1.1044922 1.4736328 0.34513545
1.1103516 1.4736328 0.34473208
1.1162109 1.4736328 0.34504214
1.1220703 1.4736328 0.34589192
1.5205078 1.4675839 0.067382812
1.5205078 1.4619141 0.070531853
1.5263672 1.4624006 0.067382812
1.5263672 1.4619141 0.067583926
1.5322266 1.4644465 0.067382812
1.5322266 1.4619141 0.068908609
1.5380859 1.4619141 0.070609309
1.4623218 1.4736328 0.10839844
1.4619141 1.4753133 0.10839844
1.4619141 1.4736328 0.10879186
1.4605907 1.4677734 0.11425781
1.4574058 1.4443359 0.11425781
1.4560547 1.4443359 0.11579107
1.4573693 1.4619141 0.12011719
1.4560547 1.4619141 0.12267547
1.5205078 1.4736328 0.067236528
1.5310726 1.4736328 0.061523438
1.5263672 1.474297 0.061523438
1.5263672 1.4736328 0.062043451
1.5324082 1.4736328 0.061523438
1.5380859 1.478266 0.061523438
1.5380859 1.4736328 0.065278038
1.5204347 1.4677734 0.067382812
1.5357162 1.4677734 0.067382812
1.5380859 1.4699887 0.067382812
1.5380859 1.4677734 0.068768442
1.5322266 1.44944 0.073242188
1.5428452 1.4443359 0.073242188
1.5380859 1.4464558 0.073242188
1.5439453 1.4443359 0.073514223
1.5498047 1.4443359 0.075119138
1.5556641 1.4443359 0.077976823
1.5029297 1.4525307 0.073242188
1.5087891 1.4515265 0.073242188
1.5146484 1.4515059 0.073242188
1.5205078 1.452575 0.073242188
1.5298201 1.4501953 0.073242188
1.5322266 1.4501953 0.073550679
1.5380859 1.4501953 0.075318143
1.5439453 1.4501953 0.075362131
1.4603856 1.4736328 0.11425781
1.5260329 1.4560547 0.073242188
1.5205078 1.4580297 0.073242188
1.5205078 1.4560547 0.075325176
1.5272279 1.4560547 0.073242188
1.5322266 1.4569062 0.073242188
1.5322266 1.4560547 0.073965773
1.5380859 1.4595275 0.073242188
1.5380859 1.4560547 0.076658137
1.4577812 1.4677734 0.12011719
1.4560547 1.4677734 0.12181687
1.4551536 1.4619141 0.12597656
1.5186846 1.4619141 0.073242188
1.5388472 1.4619141 0.073242188
1.4580259 1.4736328 0.12011719
1.4560547 1.4736328 0.12239195
1.4542575 1.4677734 0.12597656
1.5029297 1.4554052 0.079101562
1.5087891 1.4539608 0.079101562
1.5146484 1.4546835 0.079101562
1.5457677 1.4501953 0.079101562
1.5439453 1.4515996 0.079101562
1.5204129 1.4736328 0.067382812
1.5387834 1.4736328 0.067382812
1.5177387 1.4677734 0.073242188
1.5395073 1.4677734 0.073242188
1.5498047 1.4463247 0.079101562
1.5570949 1.4443359 0.079101562
1.5556641 1.4448688 0.079101562
1.5615234 1.4443359 0.082536019
1.5158131 1.4619141 0.079101562
1.5146484 1.4619141 0.082233377
1.540668 1.4619141 0.079101562
1.5029297 1.4560547 0.080423974
1.5087891 1.4560547 0.083874315
1.5169082 1.4560547 0.079101562
1.5146484 1.4560547 0.081674799
1.5392462 1.4560547 0.079101562
1.4531968 1.4619141 0.13769531
1.4536828 1.4677734 0.13183594
1.4545392 1.4736328 0.12597656
1.5164618 1.4736328 0.073242188
1.5146484 1.4736328 0.075892545
1.5406946 1.4736328 0.073242188
1.5483273 1.4501953 0.084960938
1.5439453 1.453975 0.084960938
1.5498047 1.4501953 0.089958057
1.5556641 1.4501953 0.090186402
1.5087891 1.4677734 0.082541153
1.5149584 1.4677734 0.079101562
1.5146484 1.4687506 0.079101562
1.5146484 1.4677734 0.07973896
1.5413965 1.4677734 0.079101562
1.5498047 1.4487202 0.084960938
1.5556641 1.4476773 0.084960938
1.5637181 1.4443359 0.084960938
1.5615234 1.4459398 0.084960938
1.5673828 1.4443359 0.089459576
1.5029297 1.4599364 0.084960938
1.5087891 1.4596932 0.084960938
1.5417725 1.4560547 0.084960938
1.5439453 1.4560547 0.090636231
1.5556641 1.4560547 0.09073142
1.5029297 1.4619141 0.087191597
1.5098951 1.4619141 0.084960938
1.5087891 1.4630944 0.084960938
1.5087891 1.4619141 0.08558131
1.5424002 1.4619141 0.084960938
1.5439453 1.4619141 0.090229087
1.4537605 1.4736328 0.13183594
1.4532527 1.4677734 0.13769531
1.5498047 1.4540026 0.090820312
1.5587916 1.4501953 0.090820312
1.5615234 1.4501953 0.091392562
1.5673828 1.4501953 0.094613723
1.4384766 1.4501953 0.16517803
1.5029297 1.4736328 0.082648024
1.5103533 1.4736328 0.079101562
1.5087891 1.4736328 0.080276586
1.5424932 1.4736328 0.079101562
1.5439453 1.4736328 0.083774179
1.5460711 1.4560547 0.090820312
1.5543711 1.4560547 0.090820312
1.5498047 1.4560547 0.091146708
1.5559441 1.4560547 0.090820312
1.5556641 1.4561919 0.090820312
1.5615234 1.4560547 0.092554495
1.5615234 1.4498183 0.090820312
1.569085 1.4443359 0.090820312
1.5673828 1.4457724 0.090820312
1.5732422 1.4443359 0.093923114
1.5791016 1.4443359 0.09223365
1.5030524 1.4677734 0.084960938
1.5029297 1.4679083 0.084960938
1.5029297 1.4677734 0.085014306
1.5433642 1.4677734 0.084960938
1.5439453 1.4712685 0.084960938
1.5439453 1.4677734 0.086776018
1.5498047 1.4677734 0.090382986
1.5451909 1.4619141 0.090820312
1.5498047 1.4667935 0.090820312
1.5498047 1.4619141 0.093023777
1.5556641 1.4619141 0.094449744
1.4532943 1.4736328 0.13769531
1.4530122 1.4677734 0.14355469
1.5696853 1.4501953 0.096679688
1.5673828 1.4522471 0.096679688
1.5732422 1.4501953 0.1000925
1.4384766 1.4560547 0.16703951
1.4443359 1.4560547 0.17105256
1.4358563 1.4501953 0.16699219
1.4326172 1.4501953 0.16933435
1.4384766 1.4559432 0.16699219
1.5457511 1.4736328 0.084960938
1.5498047 1.4736328 0.08771915
1.5732422 1.4470067 0.096679688
1.564546 1.4560547 0.096679688
1.5615234 1.4598625 0.096679688
1.5673828 1.4560547 0.10126342
1.5505577 1.4677734 0.090820312
1.5556641 1.4677734 0.093794122
1.4535065 1.4736328 0.14355469
1.4560547 1.4736328 0.147806
1.558598 1.4619141 0.096679688
1.5615234 1.4619141 0.098823123
1.4443359 1.4619141 0.17138651
1.5732422 1.4515719 0.10253906
1.4334189 1.4560547 0.17285156
1.4326172 1.4560547 0.17353311
1.4384766 1.4607078 0.17285156
1.5681169 1.4560547 0.10253906
1.5673828 1.4577917 0.10253906
1.5546867 1.4736328 0.090820312
1.5556641 1.4736328 0.091434181
1.5615234 1.4736328 0.095227279
1.4267578 1.4443359 0.17861389
1.4326172 1.4450341 0.17285156
1.4326172 1.4443359 0.17339778
1.4326172 1.4550638 0.17285156
1.560328 1.4677734 0.096679688
1.5615234 1.4697187 0.096679688
1.5615234 1.4677734 0.097397648
1.5673828 1.4677734 0.10227536
1.5650457 1.4619141 0.10253906
1.5673828 1.467199 0.10253906
1.5673828 1.4619141 0.10494094
1.5732422 1.4551286 0.10839844
1.4326172 1.4619141 0.17795131
1.441267 1.4619141 0.17285156
1.4384766 1.4619141 0.17421523
1.4443359 1.46401 0.17285156
1.4560547 1.4736328 0.15625681
1.5721309 1.4560547 0.10839844
1.5732422 1.4560547 0.10986797
1.5791016 1.4560547 0.11287954
1.5634065 1.4736328 0.096679688
1.5673828 1.4736328 0.099715702
1.4277761 1.4560547 0.17871094
1.4267578 1.4560547 0.17954236
1.4275709 1.4501953 0.17871094
1.4267578 1.4501953 0.17946598
1.567639 1.4677734 0.10253906
1.5732422 1.4677734 0.10822764
1.4267297 1.4443359 0.17871094
1.4267578 1.4447571 0.17871094
1.4501953 1.4720825 0.16699219
1.5710409 1.4619141 0.10839844
1.5732422 1.4673274 0.10839844
1.5732422 1.4619141 0.11051121
1.5791016 1.4619141 0.1132497
1.454013 1.4736328 0.16113281
1.4501953 1.4736328 0.16559884
1.4315511 1.4619141 0.17871094
1.4267578 1.4619141 0.18210444
1.5698636 1.4736328 0.10253906
1.5732422 1.4736328 0.10645784
1.4254304 1.4560547 0.18457031
1.5735508 1.4677734 0.10839844
1.5791016 1.4677734 0.11221424
1.4253408 1.4443359 0.18457031
1.4250221 1.4501953 0.18457031
1.4326172 1.4677734 0.17689793
1.4384766 1.4677734 0.17545532
1.4443359 1.4677734 0.1760764
1.4501953 1.4681164 0.17285156
1.4501953 1.4677734 0.17340319
1.4491853 1.4736328 0.16699219
1.4262393 1.4619141 0.18457031
1.5758607 1.4736328 0.10839844
1.5791016 1.4736328 0.1108585
1.4248616 1.4560547 0.19042969
1.4246178 1.4443359 0.19042969
1.4311965 1.4677734 0.17871094
1.4267578 1.4677734 0.18165179
1.4384766 1.4724678 0.17871094
1.4443359 1.4708133 0.17871094
1.4326172 1.4736328 0.17810273
1.4471782 1.4736328 0.17285156
1.4253317 1.4619141 0.19042969
1.5791016 1.4783118 0.11425781
1.4239995 1.4443359 0.19628906
1.4208984 1.4443359 0.20038587
1.4239619 1.4560547 0.19628906
1.4257998 1.4677734 0.18457031
1.4320472 1.4736328 0.17871094
1.4267578 1.4736328 0.18149385
1.4350983 1.4736328 0.17871094
1.4384766 1.4736328 0.17960426
1.445099 1.4736328 0.17871094
1.4443359 1.4752228 0.17871094
1.4443359 1.4736328 0.18055934
1.4243866 1.4619141 0.19628906
1.4221869 1.4560547 0.20214844
1.4208984 1.4560547 0.20481592
1.4193375 1.4443359 0.20214844
1.4208984 1.4443359 0.20746613
1.4249705 1.4677734 0.19042969
1.4257572 1.4736328 0.18457031
1.4211143 1.4443359 0.20800781
1.4215251 1.4619141 0.20214844
1.4208984 1.4619141 0.20282038
1.4196362 1.4560547 0.20800781
1.4243176 1.4677734 0.19628906
1.4249963 1.4736328 0.19042969
1.4184387 1.4619141 0.20800781
1.4234468 1.4677734 0.20214844
1.4208984 1.4677734 0.2072583
1.4243152 1.4736328 0.19628906
1.4183991 1.4619141 0.21386719
1.4203863 1.4677734 0.20800781
1.4208984 1.4689062 0.20800781
1.8779297 1.4619141 0.35705599
1.8837891 1.4619141 0.35675517
1.8896484 1.4619141 0.35718223
1.8955078 1.4619141 0.35734776
1.9013672 1.4619141 0.3572984
1.8779297 1.4501953 0.3573443
1.8837891 1.4501953 0.3569091
1.8896484 1.4501953 0.35714012
1.8955078 1.4501953 0.35765859
1.9013672 1.4501953 0.35746676
1.4226255 1.4736328 0.20214844
1.8779297 1.4443359 0.35735402
1.8837891 1.4443359 0.35704094
1.8896484 1.4443359 0.35733286
1.8955078 1.4443359 0.35777566
1.9013672 1.4443359 0.357485
1.8779297 1.4560547 0.35718024
1.8837891 1.4560547 0.35672194
1.8896484 1.4560547 0.35710245
1.8955078 1.4560547 0.35728374
1.9013672 1.4560547 0.35761473
1.8779297 1.4677734 0.35707113
1.8837891 1.4677734 0.35678777
1.8896484 1.4677734 0.35735232
1.8955078 1.4677734 0.35755229
1.9013672 1.4677734 0.35770413
1.8779297 1.4736328 0.35714945
1.8837891 1.4736328 0.35696721
1.8896484 1.4736328 0.35736591
1.8955078 1.4736328 0.35777733
1.9013672 1.4736328 0.35843545
1.9072266 1.4736328 0.35745063
1.4226065 1.4736328 0.20800781
1.1279297 1.4443359 0.34602705
1.1337891 1.4443359 0.34605956
1.1396484 1.4443359 0.34654188
1.1455078 1.4443359 0.34694844
1.1513672 1.4443359 0.34745777
1.1572266 1.4443359 0.34755316
1.1630859 1.4443359 0.34736675
1.1689453 1.4443359 0.34740072
1.1748047 1.4443359 0.3479616
1.1806641 1.4443359 0.34836999
1.1865234 1.4443359 0.34827846
1.1923828 1.4443359 0.34824103
1.1982422 1.4443359 0.34801912
1.2041016 1.4443359 0.3480505
1.2099609 1.4443359 0.3482793
1.2158203 1.4443359 0.34799048
1.2216797 1.4443359 0.34770209
1.2275391 1.4443359 0.3477948
1.2333984 1.4443359 0.34787458
1.2392578 1.4443359 0.34772575
1.2451172 1.4443359 0.34783742
1.2509766 1.4443359 0.34764433
1.2568359 1.4443359 0.34786916
1.2626953 1.4443359 0.34805977
1.2685547 1.4443359 0.34790111
1.2744141 1.4443359 0.34810072
1.2802734 1.4443359 0.34810862
1.2861328 1.4443359 0.34825861
1.2919922 1.4443359 0.348333
1.2978516 1.4443359 0.34852692
1.1279297 1.4501953 0.34588504
1.1337891 1.4501953 0.34639028
1.1396484 1.4501953 0.34658122
1.1455078 1.4501953 0.34708491
1.1513672 1.4501953 0.3471567
1.1572266 1.4501953 0.34735167
1.1630859 1.4501953 0.34758681
1.1689453 1.4501953 0.34759861
1.1748047 1.4501953 0.3478179
1.1806641 1.4501953 0.34823579
1.1865234 1.4501953 0.34850693
1.1923828 1.4501953 0.34843636
1.1982422 1.4501953 0.34819227
1.2041016 1.4501953 0.34778631
1.2099609 1.4501953 0.34810674
1.2158203 1.4501953 0.34810847
1.2216797 1.4501953 0.34799403
1.2275391 1.4501953 0.3479189
1.2333984 1.4501953 0.34788138
1.2392578 1.4501953 0.34771156
1.2451172 1.4501953 0.34768528
1.2509766 1.4501953 0.34767139
1.2568359 1.4501953 0.34761456
1.2626953 1.4501953 0.34796384
1.2685547 1.4501953 0.34797552
1.2744141 1.4501953 0.34801695
1.2802734 1.4501953 0.34813023
1.2861328 1.4501953 0.34831914
1.2919922 1.4501953 0.34834146
1.2978516 1.4501953 0.34855926
1.1279297 1.4560547 0.34583545
1.1337891 1.4560547 0.34617391
1.1396484 1.4560547 0.34676495
1.1455078 1.4560547 0.34692538
1.1513672 1.4560547 0.34689036
1.1572266 1.4560547 0.34715205
1.1630859 1.4560547 0.34777927
1.1689453 1.4560547 0.34773764
1.1748047 1.4560547 0.34800491
1.1806641 1.4560547 0.34840882
1.1865234 1.4560547 0.34834433
1.1923828 1.4560547 0.34841421
1.1982422 1.4560547 0.34827289
1.2041016 1.4560547 0.34790239
1.2099609 1.4560547 0.34793544
1.2158203 1.4560547 0.34814939
1.2216797 1.4560547 0.34818164
1.2275391 1.4560547 0.34805235
1.2333984 1.4560547 0.34780616
1.2392578 1.4560547 0.34775791
1.2451172 1.4560547 0.34764609
1.2509766 1.4560547 0.34777156
1.2568359 1.4560547 0.34743607
1.2626953 1.4560547 0.34770426
1.2685547 1.4560547 0.34775972
1.2744141 1.4560547 0.34771618
1.2802734 1.4560547 0.34790635
1.2861328 1.4560547 0.34826753
1.2919922 1.4560547 0.34849086
1.2978516 1.4560547 0.34839761
1.3037109 1.4560547 0.34852478
1.2994096 1.4443359 0.34863281
1.3037109 1.4443359 0.34891799
1.3095703 1.4443359 0.348849
1.1279297 1.4619141 0.34617263
1.1337891 1.4619141 0.34629723
1.1396484 1.4619141 0.34686339
1.1455078 1.4619141 0.34724531
1.1513672 1.4619141 0.34710765
1.1572266 1.4619141 0.34747142
1.1630859 1.4619141 0.34800509
1.1689453 1.4619141 0.34800214
1.1748047 1.4619141 0.34835181
1.1806641 1.4619141 0.34844482
1.1865234 1.4619141 0.34816962
1.1923828 1.4619141 0.34818637
1.1982422 1.4619141 0.34835488
1.2041016 1.4619141 0.348102
1.2099609 1.4619141 0.34783903
1.2158203 1.4619141 0.3480455
1.2216797 1.4619141 0.34798405
1.2275391 1.4619141 0.34803632
1.2333984 1.4619141 0.34769064
1.2392578 1.4619141 0.34764457
1.2451172 1.4619141 0.34782365
1.2509766 1.4619141 0.34781939
1.2568359 1.4619141 0.34757414
1.2626953 1.4619141 0.34758425
1.2685547 1.4619141 0.34770414
1.2744141 1.4619141 0.34765625
1.2802734 1.4619141 0.34782442
1.2861328 1.4619141 0.34834081
1.2919922 1.4619141 0.34841669
1.2978516 1.4619141 0.34827173
1.3037109 1.4619141 0.34844074
1.3095703 1.4619141 0.34857148
1.3002239 1.4501953 0.34863281
1.3037109 1.4531372 0.34863281
1.3037109 1.4501953 0.3487429
1.3095703 1.4501953 0.34888673
1.1279297 1.4677734 0.34583279
1.1337891 1.4677734 0.34618065
1.1396484 1.4677734 0.34676701
1.1455078 1.4677734 0.34736332
1.1513672 1.4677734 0.34731555
1.1572266 1.4677734 0.34761035
1.1630859 1.4677734 0.3477883
1.1689453 1.4677734 0.34807432
1.1748047 1.4677734 0.34849074
1.1806641 1.4677734 0.34858871
1.1865234 1.4677734 0.34830031
1.1923828 1.4677734 0.34805384
1.1982422 1.4677734 0.34813687
1.2041016 1.4677734 0.3480055
1.2099609 1.4677734 0.34788263
1.2158203 1.4677734 0.34794044
1.2216797 1.4677734 0.34807882
1.2275391 1.4677734 0.34812438
1.2333984 1.4677734 0.34778035
1.2392578 1.4677734 0.34775531
1.2451172 1.4677734 0.34787023
1.2509766 1.4677734 0.34791291
1.2568359 1.4677734 0.34778935
1.2626953 1.4677734 0.34772635
1.2685547 1.4677734 0.34764585
1.2744141 1.4677734 0.3475529
1.2802734 1.4677734 0.34788379
1.2861328 1.4677734 0.34807867
1.2919922 1.4677734 0.34834731
1.2978516 1.4677734 0.34843197
1.3037109 1.4677734 0.3484014
1.3095703 1.4677734 0.34856996
1.3058724 1.4560547 0.34863281
1.3095703 1.4604652 0.34863281
1.3095703 1.4560547 0.34882006
1.31048 1.4619141 0.34863281
1.1279297 1.4736328 0.34631106
1.1337891 1.4736328 0.34655273
1.1396484 1.4736328 0.34708476
1.1455078 1.4736328 0.34733483
1.1513672 1.4736328 0.34737918
1.1572266 1.4736328 0.34758699
1.1630859 1.4736328 0.34771281
1.1689453 1.4736328 0.34803516
1.1748047 1.4736328 0.3485412
1.1865234 1.4736328 0.3484914
1.1923828 1.4736328 0.34834021
1.1982422 1.4736328 0.34819639
1.2041016 1.4736328 0.34796265
1.2099609 1.4736328 0.34781164
1.2158203 1.4736328 0.34800252
1.2216797 1.4736328 0.34808969
1.2275391 1.4736328 0.34821108
1.2333984 1.4736328 0.34817979
1.2392578 1.4736328 0.34786719
1.2451172 1.4736328 0.34788722
1.2509766 1.4736328 0.34797043
1.2568359 1.4736328 0.34770545
1.2626953 1.4736328 0.3476544
1.2685547 1.4736328 0.34757611
1.2744141 1.4736328 0.3476283
1.2802734 1.4736328 0.34789962
1.2861328 1.4736328 0.34781507
1.2919922 1.4736328 0.3482089
1.2978516 1.4736328 0.34831896
1.3037109 1.4736328 0.34839422
1.1806641 1.4728644 0.34863281
1.310467 1.4677734 0.34863281
1.3095703 1.4719757 0.34863281
1.1802564 1.4736328 0.34863281
1.1748047 1.4762894 0.34863281
1.1809273 1.4736328 0.34863281
1.1806641 1.4736328 0.34863934
1.1865234 1.4780209 0.34863281
1.3090104 1.4736328 0.34863281
1.3095703 1.4736328 0.34865797
1.3916016 1.4501953 0.34836167
1.3916016 1.4443359 0.3485679
1.3916016 1.4560547 0.34851992
1.3154297 1.4501953 0.34906185
1.3212891 1.4501953 0.34934288
1.3271484 1.4501953 0.34947875
1.3330078 1.4501953 0.34960032
1.3388672 1.4501953 0.35025007
1.3447266 1.4501953 0.35044366
1.3505859 1.4501953 0.35053578
1.3564453 1.4501953 0.35070872
1.3623047 1.4501953 0.35087103
1.3681641 1.4501953 0.35085982
1.3740234 1.4501953 0.35078761
1.3798828 1.4501953 0.35031584
1.3903927 1.4501953 0.34863281
1.3857422 1.4501953 0.34972236
1.3154297 1.4443359 0.34919602
1.3212891 1.4443359 0.34948555
1.3271484 1.4443359 0.34933838
1.3330078 1.4443359 0.34959128
1.3388672 1.4443359 0.35039315
1.3447266 1.4443359 0.35026145
1.3505859 1.4443359 0.35047638
1.3564453 1.4443359 0.35076293
1.3623047 1.4443359 0.35054305
1.3681641 1.4443359 0.350683
1.3740234 1.4443359 0.35074845
1.3798828 1.4443359 0.3503454
1.3912758 1.4443359 0.34863281
1.3857422 1.4443359 0.34983736
1.3918269 1.4443359 0.34863281
1.3916016 1.4619141 0.34857979
1.3154297 1.4560547 0.34893751
1.3212891 1.4560547 0.34908354
1.3271484 1.4560547 0.34931314
1.3330078 1.4560547 0.34966344
1.3388672 1.4560547 0.35030252
1.3447266 1.4560547 0.35057971
1.3505859 1.4560547 0.35063431
1.3564453 1.4560547 0.35078439
1.3623047 1.4560547 0.35099718
1.3681641 1.4560547 0.35091141
1.3740234 1.4560547 0.35098597
1.3798828 1.4560547 0.35067838
1.3911154 1.4560547 0.34863281
1.3857422 1.4560547 0.34998068
1.3154297 1.4619141 0.34896457
1.3212891 1.4619141 0.34922928
1.3271484 1.4619141 0.34929374
1.3330078 1.4619141 0.34965888
1.3388672 1.4619141 0.35050759
1.3447266 1.4619141 0.35069287
1.3505859 1.4619141 0.35067126
1.3564453 1.4619141 0.35061499
1.3623047 1.4619141 0.3508738
1.3681641 1.4619141 0.35111719
1.3740234 1.4619141 0.35094568
1.3798828 1.4619141 0.35054538
1.3912989 1.4619141 0.34863281
1.3857422 1.4619141 0.34974745
1.3917729 1.4619141 0.34863281
1.3916016 1.4622575 0.34863281
1.3154297 1.4677734 0.34898534
1.3212891 1.4677734 0.34920749
1.3271484 1.4677734 0.34941673
1.3330078 1.4677734 0.3496272
1.3388672 1.4677734 0.35060111
1.3447266 1.4677734 0.3506729
1.3505859 1.4677734 0.35055485
1.3564453 1.4677734 0.35059255
1.3623047 1.4677734 0.35087734
1.3681641 1.4677734 0.35134009
1.3740234 1.4677734 0.35103995
1.3798828 1.4677734 0.35058627
1.3857422 1.4677734 0.34988099
1.3916016 1.4677734 0.34964448
1.3974609 1.4677734 0.34884429
1.3154297 1.4776999 0.34863281
1.3154297 1.4736328 0.34868571
1.3212891 1.4736328 0.34897953
1.3271484 1.4736328 0.34930381
1.3330078 1.4736328 0.34961742
1.3388672 1.4736328 0.35065541
1.3447266 1.4736328 0.35081702
1.3505859 1.4736328 0.3507148
1.3564453 1.4736328 0.35085183
1.3623047 1.4736328 0.35104159
1.3681641 1.4736328 0.35115644
1.3740234 1.4736328 0.35078984
1.3798828 1.4736328 0.35051775
1.3857422 1.4736328 0.34941363
1.3916016 1.4736328 0.35001066
1.3974609 1.4784627 0.34863281
1.3974609 1.4736328 0.35042825
1.6904297 1.4443359 0.35278794
1.6962891 1.4443359 0.35293213
1.7021484 1.4443359 0.3531293
1.7080078 1.4443359 0.35343683
1.7138672 1.4443359 0.35350454
1.7197266 1.4443359 0.35346451
1.7255859 1.4443359 0.35333726
1.7314453 1.4443359 0.3533062
1.7373047 1.4443359 0.35324579
1.7431641 1.4443359 0.35303786
1.7490234 1.4443359 0.3529112
1.7548828 1.4443359 0.3527793
1.7607422 1.4443359 0.35299009
1.7666016 1.4443359 0.35329139
1.7724609 1.4443359 0.35317177
1.7783203 1.4443359 0.35313264
1.7841797 1.4443359 0.35360152
1.7900391 1.4443359 0.35352838
1.7958984 1.4443359 0.35364872
1.8017578 1.4443359 0.35388675
1.8076172 1.4443359 0.35374698
1.8134766 1.4443359 0.35378477
1.8193359 1.4443359 0.35420346
1.6904297 1.4501953 0.3526966
1.6962891 1.4501953 0.35311207
1.7021484 1.4501953 0.35313737
1.7080078 1.4501953 0.35314232
1.7138672 1.4501953 0.35343957
1.7197266 1.4501953 0.35342127
1.7255859 1.4501953 0.35310328
1.7314453 1.4501953 0.35311788
1.7373047 1.4501953 0.35300809
1.7431641 1.4501953 0.35303271
1.7490234 1.4501953 0.35284981
1.7548828 1.4501953 0.35297862
1.7607422 1.4501953 0.35308036
1.7666016 1.4501953 0.35324255
1.7724609 1.4501953 0.35323426
1.7783203 1.4501953 0.35306174
1.7841797 1.4501953 0.35349238
1.7900391 1.4501953 0.35340813
1.7958984 1.4501953 0.35367048
1.8017578 1.4501953 0.3538276
1.8076172 1.4501953 0.35369232
1.8134766 1.4501953 0.35385412
1.8193359 1.4501953 0.35431531
1.6201172 1.4443359 0.35221362
1.6259766 1.4443359 0.35174185
1.6318359 1.4443359 0.35094464
1.6376953 1.4443359 0.35095191
1.6435547 1.4443359 0.35082078
1.6494141 1.4443359 0.35089803
1.6552734 1.4443359 0.35115317
1.6611328 1.4443359 0.3517673
1.6669922 1.4443359 0.35234112
1.6728516 1.4443359 0.3524901
1.6787109 1.4443359 0.35298678
1.6845703 1.4443359 0.35289958
1.6142578 1.4501953 0.35242647
1.6201172 1.4501953 0.35150373
1.6259766 1.4501953 0.35099608
1.6318359 1.4501953 0.35064843
1.6376953 1.4501953 0.35073569
1.6435547 1.4501953 0.35090432
1.6494141 1.4501953 0.3508324
1.6552734 1.4501953 0.3510986
1.6611328 1.4501953 0.35157296
1.6669922 1.4501953 0.3519783
1.6728516 1.4501953 0.35239866
1.6787109 1.4501953 0.35299554
1.6845703 1.4501953 0.35274515
1.6904297 1.4560547 0.35295093
1.6962891 1.4560547 0.35339847
1.7021484 1.4560547 0.35337213
1.7080078 1.4560547 0.35323161
1.7138672 1.4560547 0.35352662
1.7197266 1.4560547 0.35333419
1.7255859 1.4560547 0.35306266
1.7314453 1.4560547 0.3531051
1.7373047 1.4560547 0.35308158
1.7431641 1.4560547 0.35303974
1.7490234 1.4560547 0.35292569
1.7548828 1.4560547 0.35306132
1.7607422 1.4560547 0.35313925
1.7666016 1.4560547 0.35320342
1.7724609 1.4560547 0.3532685
1.7783203 1.4560547 0.35316762
1.7841797 1.4560547 0.35362649
1.7900391 1.4560547 0.35354108
1.7958984 1.4560547 0.35356519
1.8017578 1.4560547 0.35381666
1.8076172 1.4560547 0.35390723
1.8134766 1.4560547 0.35405427
1.8193359 1.4560547 0.35417747
1.8220825 1.4443359 0.35449219
1.8251953 1.4443359 0.3548193
1.8310547 1.4443359 0.35566956
1.8369141 1.4443359 0.3560493
1.8427734 1.4443359 0.35625246
1.8486328 1.4443359 0.35653165
1.8544922 1.4443359 0.35683849
1.8603516 1.4443359 0.35709426
1.8662109 1.4443359 0.35732117
1.8720703 1.4443359 0.35737166
1.6142578 1.4560547 0.35284552
1.6201172 1.4560547 0.35148409
1.6259766 1.4560547 0.35083216
1.6318359 1.4560547 0.35047922
1.6376953 1.4560547 0.35056585
1.6435547 1.4560547 0.35086569
1.6494141 1.4560547 0.35088024
1.6552734 1.4560547 0.35097492
1.6611328 1.4560547 0.35136175
1.6669922 1.4560547 0.35181946
1.6728516 1.4560547 0.35224092
1.6787109 1.4560547 0.35283628
1.6845703 1.4560547 0.35270786
1.6904297 1.4619141 0.35303214
1.6962891 1.4619141 0.35316542
1.7021484 1.4619141 0.35334024
1.7080078 1.4619141 0.3532348
1.7138672 1.4619141 0.35347784
1.7197266 1.4619141 0.35332561
1.7255859 1.4619141 0.3532047
1.7314453 1.4619141 0.3532778
1.7373047 1.4619141 0.35312968
1.7431641 1.4619141 0.35315847
1.7490234 1.4619141 0.35318911
1.7548828 1.4619141 0.3531245
1.7607422 1.4619141 0.35325971
1.7666016 1.4619141 0.35335806
1.7724609 1.4619141 0.35328162
1.7783203 1.4619141 0.35341716
1.7841797 1.4619141 0.35365859
1.7900391 1.4619141 0.35359389
1.7958984 1.4619141 0.35353515
1.8017578 1.4619141 0.35383311
1.8076172 1.4619141 0.35397333
1.8134766 1.4619141 0.35410872
1.8193359 1.4619141 0.35421595
1.8214327 1.4501953 0.35449219
1.8251953 1.4501953 0.35481778
1.8310547 1.4501953 0.35551304
1.8369141 1.4501953 0.35587323
1.8427734 1.4501953 0.35623151
1.8486328 1.4501953 0.35658666
1.8544922 1.4501953 0.3567673
1.8603516 1.4501953 0.35699382
1.8662109 1.4501953 0.3574045
1.8720703 1.4501953 0.35738841
1.6175948 1.4443359 0.35449219
1.6142578 1.4477973 0.35449219
1.6142578 1.4443359 0.35806143
1.6025391 1.4619141 0.35397923
1.6083984 1.4619141 0.34974337
1.6142578 1.4619141 0.35243747
1.6201172 1.4619141 0.35148716
1.6259766 1.4619141 0.35069853
1.6318359 1.4619141 0.35048327
1.6376953 1.4619141 0.35047475
1.6435547 1.4619141 0.35082129
1.6494141 1.4619141 0.3510223
1.6552734 1.4619141 0.35111189
1.6611328 1.4619141 0.35143673
1.6669922 1.4619141 0.35208911
1.6728516 1.4619141 0.35223454
1.6787109 1.4619141 0.35259241
1.6845703 1.4619141 0.35280812
1.6104333 1.4501953 0.35449219
1.6083984 1.4501953 0.35664231
1.6904297 1.4677734 0.35300019
1.6962891 1.4677734 0.35312787
1.7021484 1.4677734 0.35320109
1.7080078 1.4677734 0.35332653
1.7138672 1.4677734 0.35336486
1.7197266 1.4677734 0.35369849
1.7255859 1.4677734 0.35369211
1.7314453 1.4677734 0.35342258
1.7373047 1.4677734 0.353423
1.7431641 1.4677734 0.35340196
1.7490234 1.4677734 0.35327733
1.7548828 1.4677734 0.35326698
1.7607422 1.4677734 0.35339221
1.7666016 1.4677734 0.35338575
1.7724609 1.4677734 0.35349658
1.7783203 1.4677734 0.35352832
1.7841797 1.4677734 0.35368082
1.7900391 1.4677734 0.35356206
1.7958984 1.4677734 0.35373899
1.8017578 1.4677734 0.3537192
1.8076172 1.4677734 0.35383493
1.8134766 1.4677734 0.35410187
1.8193359 1.4677734 0.35436291
1.8220805 1.4560547 0.35449219
1.8251953 1.4560547 0.35485348
1.8310547 1.4560547 0.35554764
1.8369141 1.4560547 0.35566628
1.8427734 1.4560547 0.35624245
1.8486328 1.4560547 0.35661945
1.8544922 1.4560547 0.3568075
1.8603516 1.4560547 0.35720247
1.8662109 1.4560547 0.35749704
1.8720703 1.4560547 0.35754046
1.6125661 1.4560547 0.35449219
1.6083984 1.4590681 0.35449219
1.6904297 1.4736328 0.35297725
1.6962891 1.4736328 0.35304531
1.7021484 1.4736328 0.35294393
1.7080078 1.4736328 0.35323596
1.7138672 1.4736328 0.35355645
1.7197266 1.4736328 0.35360557
1.7255859 1.4736328 0.35358018
1.7314453 1.4736328 0.35365814
1.7373047 1.4736328 0.35365349
1.7431641 1.4736328 0.35342252
1.7490234 1.4736328 0.35332721
1.7548828 1.4736328 0.35333052
1.7607422 1.4736328 0.35343581
1.7666016 1.4736328 0.35356528
1.7724609 1.4736328 0.35358307
1.7783203 1.4736328 0.35361025
1.7841797 1.4736328 0.3535217
1.7900391 1.4736328 0.35362682
1.7958984 1.4736328 0.35392192
1.8017578 1.4736328 0.35374385
1.8076172 1.4736328 0.35406044
1.8134766 1.4736328 0.35418734
1.8193359 1.4736328 0.35414794
1.8251953 1.4736328 0.35445029
1.6142578 1.4677734 0.35213199
1.6201172 1.4677734 0.35100651
1.6259766 1.4677734 0.35037139
1.6318359 1.4677734 0.35062909
1.6376953 1.4677734 0.35064822
1.6435547 1.4677734 0.3507987
1.6494141 1.4677734 0.35100278
1.6552734 1.4677734 0.35109726
1.6611328 1.4677734 0.35157248
1.6669922 1.4677734 0.35217518
1.6728516 1.4677734 0.35225558
1.6787109 1.4677734 0.35258913
1.6845703 1.4677734 0.35278898
1.821601 1.4619141 0.35449219
1.8251953 1.4619141 0.35492089
1.8310547 1.4619141 0.35560527
1.8369141 1.4619141 0.35572016
1.8427734 1.4619141 0.35609791
1.8486328 1.4619141 0.35645512
1.8544922 1.4619141 0.35666946
1.8603516 1.4619141 0.35711643
1.8662109 1.4619141 0.35737681
1.8720703 1.4619141 0.35743582
1.6142578 1.4736328 0.35207325
1.6201172 1.4736328 0.35071695
1.6259766 1.4736328 0.35043246
1.6318359 1.4736328 0.35055125
1.6376953 1.4736328 0.35057941
1.6435547 1.4736328 0.35060415
1.6494141 1.4736328 0.35102683
1.6552734 1.4736328 0.35108653
1.6611328 1.4736328 0.35152221
1.6669922 1.4736328 0.35229343
1.6728516 1.4736328 0.35239005
1.6787109 1.4736328 0.3527256
1.6845703 1.4736328 0.35270348
1.8218659 1.4677734 0.35449219
1.8251953 1.4724238 0.35449219
1.8251953 1.4677734 0.35466239
1.8310547 1.4677734 0.35553205
1.8369141 1.4677734 0.3560847
1.8427734 1.4677734 0.35622463
1.8486328 1.4677734 0.35639247
1.8544922 1.4677734 0.35654709
1.8603516 1.4677734 0.35695246
1.8662109 1.4677734 0.3571856
1.8720703 1.4677734 0.35742059
1.6083984 1.4531279 0.36035156
1.6025391 1.4639971 0.35449219
1.6083984 1.4658339 0.35449219
1.6096227 1.4560547 0.36035156
1.6083984 1.4572855 0.36035156
1.6025391 1.4677734 0.35627824
1.6109872 1.4677734 0.35449219
1.6083984 1.4677734 0.35609028
1.8254695 1.4736328 0.35449219
1.8310547 1.4736328 0.35537213
1.8369141 1.4736328 0.35605979
1.8427734 1.4736328 0.35636315
1.8486328 1.4736328 0.35648391
1.8544922 1.4736328 0.3564364
1.8603516 1.4736328 0.35685489
1.8662109 1.4736328 0.3570213
1.8720703 1.4736328 0.35717294
1.6083984 1.4560233 0.36621094
1.6025391 1.4748873 0.35449219
1.6025391 1.4736328 0.35481721
1.6096586 1.4736328 0.35449219
1.6083984 1.4751495 0.35449219
1.6083984 1.4736328 0.35512716
1.6084231 1.4560547 0.36621094
1.6083984 1.4560828 0.36621094
1.6083984 1.4560547 0.36626363
1.4970703 1.4794922 0.083893217
1.4912109 1.4970703 0.084782712
1.4970703 1.4970703 0.083452202
1.4970703 1.4853516 0.08299116
1.4912109 1.4912109 0.084188923
1.4970703 1.4912109 0.082652614
1.4970703 1.5029297 0.084357262
1.4970703 1.5087891 0.083693162
1.4794922 1.4794922 0.090787455
1.4853516 1.4794922 0.08827249
1.4940057 1.4794922 0.084960938
1.4912109 1.4794922 0.085920863
1.0751953 1.4853516 0.34481451
1.0810547 1.4853516 0.34432635
1.0869141 1.4853516 0.3439922
1.0927734 1.4853516 0.34419924
1.0986328 1.4853516 0.34463987
1.1044922 1.4853516 0.34513947
1.1103516 1.4853516 0.34523916
1.1162109 1.4853516 0.34550697
1.1220703 1.4853516 0.34585604
1.0810547 1.4970703 0.34367698
1.0869141 1.4970703 0.34436643
1.0927734 1.4970703 0.34429336
1.0986328 1.4970703 0.34462246
1.1044922 1.4970703 0.34494892
1.1103516 1.4970703 0.34525365
1.1162109 1.4970703 0.34593108
1.1220703 1.4970703 0.34642515
1.0751953 1.4794922 0.34546411
1.0810547 1.4794922 0.34431025
1.0869141 1.4794922 0.34389442
1.0927734 1.4794922 0.34448278
1.0986328 1.4794922 0.3449446
1.1044922 1.4794922 0.34507895
1.1103516 1.4794922 0.34500831
1.1162109 1.4794922 0.34502548
1.1220703 1.4794922 0.34566975
1.4894952 1.4912109 0.084960938
1.4853516 1.4912109 0.086813822
1.4908372 1.4970703 0.084960938
1.4853516 1.4970703 0.087546594
1.4912109 1.4977572 0.084960938
1.4794922 1.4853516 0.090676099
1.4853516 1.4853516 0.087462813
1.4916393 1.4853516 0.084960938
1.4912109 1.4863142 0.084960938
1.4912109 1.4853516 0.085112378
1.0751953 1.4912109 0.34364098
1.0810547 1.4912109 0.34417215
1.0869141 1.4912109 0.34423903
1.0927734 1.4912109 0.34389892
1.0986328 1.4912109 0.34464648
1.1044922 1.4912109 0.34503344
1.1103516 1.4912109 0.34533525
1.1162109 1.4912109 0.3460277
1.1220703 1.4912109 0.34621668
1.0810547 1.5029297 0.34359133
1.0869141 1.5029297 0.34431109
1.0927734 1.5029297 0.34453341
1.0986328 1.5029297 0.34470677
1.1044922 1.5029297 0.34507129
1.1103516 1.5029297 0.34498817
1.1162109 1.5029297 0.34568393
1.1220703 1.5029297 0.346587
1.4853516 1.5029297 0.088910989
1.4952711 1.5029297 0.084960938
1.4912109 1.5029297 0.086287543
1.4953384 1.5087891 0.084960938
1.4912109 1.5087891 0.087882973
1.0810547 1.5087891 0.34349215
1.0869141 1.5087891 0.34410101
1.0927734 1.5087891 0.34441194
1.0986328 1.5087891 0.34482092
1.1044922 1.5087891 0.34514737
1.1103516 1.5087891 0.34535229
1.1162109 1.5087891 0.34581164
1.1220703 1.5087891 0.34639773
1.479445 1.4794922 0.090820312
1.4736328 1.4794922 0.094613254
1.48077 1.4970703 0.090820312
1.4794922 1.4970703 0.091672957
1.4736328 1.4912109 0.095628217
1.4796307 1.4912109 0.090820312
1.4794922 1.4912109 0.090909891
1.4792929 1.4853516 0.090820312
1.4736328 1.4853516 0.094663046
1.4794922 1.4889008 0.090820312
1.4830809 1.5029297 0.090820312
1.4794922 1.5029297 0.093608335
1.4853516 1.5087681 0.090820312
1.4716938 1.4794922 0.096679688
1.4677734 1.4794922 0.10062038
1.473775 1.4970703 0.096679688
1.4736328 1.4970703 0.096800976
1.4794922 1.5087891 0.096284211
1.4853652 1.5087891 0.090820312
1.4853516 1.5087891 0.090827189
1.4725349 1.4912109 0.096679688
1.4677734 1.4912109 0.1012952
1.4736328 1.4964576 0.096679688
1.4714521 1.4853516 0.096679688
1.4677734 1.4853516 0.10009251
1.4766035 1.5029297 0.096679688
1.4736328 1.5029297 0.099737294
1.4661233 1.4794922 0.10253906
1.4619141 1.4794922 0.10744938
1.4685237 1.4970703 0.10253906
1.4677734 1.4970703 0.10337242
1.4674608 1.4912109 0.10253906
1.4677734 1.4946692 0.10253906
1.466202 1.4853516 0.10253906
1.5263672 1.4853516 0.054852031
1.5322266 1.4853516 0.053716317
1.5263672 1.4912109 0.055455487
1.5322266 1.4912109 0.05402226
1.4791353 1.5087891 0.096679688
1.4794922 1.5098826 0.096679688
1.4705997 1.5029297 0.10253906
1.4677734 1.5029297 0.10525089
1.4736328 1.5087365 0.10253906
1.5263672 1.4836633 0.055664062
1.5263672 1.4794922 0.057579163
1.5322266 1.4818386 0.055664062
1.5322266 1.4794922 0.057002034
1.5380859 1.4794922 0.060457185
1.4616829 1.4794922 0.10839844
1.4619141 1.4850122 0.10839844
1.4663719 1.4970703 0.10839844
1.4619141 1.5008167 0.10839844
1.4646369 1.4912109 0.10839844
1.4619141 1.4912109 0.11165769
1.4619565 1.4853516 0.10839844
1.4619141 1.4853516 0.10845214
1.5260094 1.4912109 0.055664062
1.5205078 1.4912109 0.058843181
1.5263672 1.4913007 0.055664062
1.5365769 1.4912109 0.055664062
1.5322266 1.4921643 0.055664062
1.5380859 1.4912109 0.056236561
1.5252419 1.4853516 0.055664062
1.5205078 1.4853516 0.058963433
1.5368172 1.4853516 0.055664062
1.5380859 1.4853516 0.056211498
1.4736571 1.5087891 0.10253906
1.4736328 1.5087891 0.10256374
1.5322266 1.4970703 0.063210025
1.4619141 1.5058208 0.10839844
1.4677734 1.5066338 0.10839844
1.4603249 1.4794922 0.11425781
1.4633882 1.4970703 0.11425781
1.4619141 1.4989578 0.11425781
1.4619141 1.4970703 0.11590994
1.5216055 1.4794922 0.061523438
1.5205078 1.4810413 0.061523438
1.5205078 1.4794922 0.062396076
1.5383811 1.4794922 0.061523438
1.4605222 1.4853516 0.11425781
1.4609791 1.4912109 0.11425781
1.4619141 1.4945502 0.11425781
1.5205078 1.5029297 0.072783604
1.5263672 1.5029297 0.070864379
1.5322266 1.5029297 0.071284465
1.5380859 1.5029297 0.073229007
1.4691052 1.5087891 0.10839844
1.4677734 1.5087891 0.11002664
1.5177256 1.4912109 0.061523438
1.5146484 1.4912109 0.064219639
1.5205078 1.4923395 0.061523438
1.5263672 1.4939771 0.061523438
1.5322266 1.4959006 0.061523438
1.5424292 1.4912109 0.061523438
1.5380859 1.4933927 0.061523438
1.5439453 1.4912109 0.063366562
1.518284 1.4853516 0.061523438
1.5146484 1.4853516 0.065554455
1.5431114 1.4853516 0.061523438
1.5439453 1.4853516 0.062409364
1.5205078 1.4970703 0.072329648
1.5269176 1.4970703 0.067382812
1.5263672 1.4970703 0.067770757
1.5359774 1.4970703 0.067382812
1.5322266 1.5002428 0.067382812
1.5380859 1.4970703 0.069823712
1.4619141 1.5067816 0.11425781
1.5205078 1.5087891 0.071724966
1.5263672 1.5087891 0.070787087
1.5322266 1.5087891 0.071494244
1.5380859 1.5087891 0.072798036
1.4582808 1.4794922 0.12011719
1.4560547 1.4794922 0.12480354
1.460355 1.4970703 0.12011719
1.4590248 1.4853516 0.12011719
1.4599656 1.4912109 0.12011719
1.5183265 1.4794922 0.067382812
1.5146484 1.4843183 0.067382812
1.5400144 1.4794922 0.067382812
1.5439453 1.4838467 0.067382812
1.5087891 1.5029297 0.078748211
1.5195755 1.5029297 0.073242188
1.5146484 1.5029297 0.075717106
1.5381033 1.5029297 0.073242188
1.5439453 1.5029297 0.077651821
1.513555 1.4912109 0.067382812
1.5146484 1.4931456 0.067382812
1.5205078 1.4949257 0.067382812
1.5263672 1.4968469 0.067382812
1.5380859 1.4959589 0.067382812
1.5448679 1.4912109 0.067382812
1.5439453 1.492645 0.067382812
1.5139484 1.4853516 0.067382812
1.5450295 1.4853516 0.067382812
1.4646109 1.5087891 0.11425781
1.4619141 1.5087891 0.11691813
1.5161396 1.4970703 0.073242188
1.5146484 1.4970703 0.07354518
1.5402113 1.4970703 0.073242188
1.4556203 1.4794922 0.12597656
1.4560547 1.4811807 0.12597656
1.5087891 1.5087891 0.077324323
1.5165896 1.5087891 0.073242188
1.5146484 1.5087891 0.073994614
1.5388664 1.5087891 0.073242188
1.5380859 1.5103338 0.073242188
1.5439453 1.5087891 0.076119594
1.4593174 1.4912109 0.12597656
1.4595629 1.4970703 0.12597656
1.4572363 1.4853516 0.12597656
1.4560547 1.4853516 0.12988362
1.5158352 1.4794922 0.073242188
1.5146484 1.4810716 0.073242188
1.5146484 1.4794922 0.075893119
1.5415274 1.4794922 0.073242188
1.5439453 1.482162 0.073242188
1.5117754 1.4853516 0.073242188
1.5463324 1.4853516 0.073242188
1.5116 1.4912109 0.073242188
1.5146484 1.4968803 0.073242188
1.5462259 1.4912109 0.073242188
1.5439453 1.4947677 0.073242188
1.5079721 1.5029297 0.079101562
1.5029297 1.5029297 0.081265338
1.5454575 1.5029297 0.079101562
1.5498047 1.5029297 0.083255522
1.5029297 1.4970703 0.082774244
1.5103867 1.4970703 0.079101562
1.5087891 1.5021163 0.079101562
1.5087891 1.4970703 0.081332825
1.5436975 1.4970703 0.079101562
1.5439453 1.4984453 0.079101562
1.5439453 1.4970703 0.079530902
1.4542146 1.4794922 0.13183594
1.4589083 1.4912109 0.13183594
1.4589738 1.4970703 0.13183594
1.4555275 1.4853516 0.13183594
1.4560547 1.4859532 0.13183594
1.5046415 1.5087891 0.079101562
1.5029297 1.5087891 0.079834536
1.5470074 1.5087891 0.079101562
1.5498047 1.5087891 0.081740797
1.5029297 1.4794922 0.082551464
1.5105494 1.4794922 0.079101562
1.5087891 1.4794922 0.080656722
1.5438907 1.4794922 0.079101562
1.5439453 1.4795539 0.079101562
1.5439453 1.4794922 0.079281032
1.5029297 1.4853516 0.082244135
1.5096593 1.4853516 0.079101562
1.5087891 1.4853516 0.081533238
1.5476373 1.4853516 0.079101562
1.5514786 1.5029297 0.084960938
